1053
-6.555209 -4.156085 -7.389922 149 152 149 147
0.498482 10.040230 -8.455974 187 197 186 170
-6.729742 1.328232 -7.772337 188 185 190 193
-3.510598 -12.675842 -6.851391 171 171 171 171
5.257083 5.045033 -6.720705 176 186 175 163
-16.954084 22.725175 -9.533816 125 127 125 125
-8.298356 19.655471 -8.956836 201 202 201 199
-8.096905 13.608007 -6.764841 254 254 254 254
-15.964077 -9.993730 -7.376973 104 102 105 107
-4.361606 13.990141 -8.497245 190 192 190 188
-2.898015 16.408957 -8.794519 192 207 189 170
-0.542357 14.894484 -8.588395 215 225 214 197
-0.269309 14.044386 -8.431928 225 234 225 209
0.308771 12.343179 -8.560903 239 245 239 225
-1.775403 7.494131 -8.063914 174 178 173 170
-7.005175 -7.280304 -6.967772 157 159 157 155
-2.792733 0.289270 -7.580059 236 250 240 182
-1.173681 2.686886 -7.732820 197 200 197 196
3.869658 8.432931 -6.896326 171 181 170 157
-5.197840 -13.411108 -7.055127 185 185 186 187
-16.706094 18.417632 -9.248109 147 146 148 153
-17.367033 20.277847 -9.420904 146 145 146 150
-8.733730 12.844577 -7.504650 253 253 254 254
-6.750798 13.766136 -8.607809 210 212 210 207
-5.456354 14.713117 -8.628926 203 207 202 202
-5.951884 16.630616 -8.784162 208 212 208 206
0.053956 13.237071 -8.534095 227 235 226 211
-2.865064 10.144863 -8.297611 185 187 185 183
-0.543655 9.752219 -8.387836 162 178 160 138
-0.187838 8.728175 -8.021560 170 189 167 143
-9.975367 24.128869 -9.121105 188 189 189 189
-18.401515 12.860137 -8.822827 74 75 74 74
-12.560098 13.922491 -6.906704 144 135 147 155
-6.124819 18.564215 -8.696332 195 197 195 195
-15.055887 -8.628657 -6.811693 162 166 162 158
-19.340834 3.859879 -7.039796 167 167 168 168
0.681338 6.406096 -8.231472 188 203 186 163
-7.870151 18.045774 -8.928147 197 200 196 195
0.224210 7.977863 -8.561273 180 196 177 155
0.131605 1.802820 -7.869874 189 190 189 189
-1.364012 -0.748730 -7.888091 209 211 210 207
-6.652839 13.533583 -8.962835 206 208 206 203
-0.834770 11.310651 -8.354456 180 198 177 155
-11.622614 7.132563 -6.996341 106 84 114 132
-8.552806 18.837966 -9.060789 165 171 164 161
-16.857854 -4.409505 -5.648823 166 167 167 162
-5.942778 11.890100 -8.513830 201 204 201 199
-18.084554 2.571715 -8.144804 36 36 37 39
-8.873593 18.225909 -8.861674 162 165 162 160
-6.239609 13.661086 -8.558109 161 165 161 159
-2.578415 19.397353 -9.150327 173 184 172 155
-1.128820 15.258059 -8.878278 137 149 135 119
-0.698003 13.541057 -8.662344 179 191 178 159
-16.018886 23.493269 -9.502585 61 59 61 68
-11.059944 27.115462 -9.414992 137 139 137 138
-6.183070 21.655769 -8.996141 140 145 139 136
-7.491262 16.356057 -8.689255 101 103 100 101
-5.641205 18.374698 -8.853152 141 145 141 138
-7.726901 10.631151 -8.410336 129 133 128 126
-4.205997 15.223684 -8.610492 141 145 140 138
-8.377047 -4.717178 -7.481695 144 143 145 145
-0.558857 11.421075 -8.405906 166 182 163 139
-1.639859 5.533929 -7.955820 144 149 143 140
-21.809215 13.450521 -9.036617 39 40 39 40
-17.156850 23.115356 -9.506493 72 76 71 72
-14.409509 25.109698 -9.224674 190 187 191 195
-9.450841 24.066354 -9.135229 133 136 133 132
-8.105357 20.023066 -8.956796 143 148 142 138
-6.996272 16.792666 -8.761354 150 157 149 145
-4.537196 19.737213 -8.911195 90 96 89 85
-4.083091 14.749050 -8.601421 136 140 136 133
-3.960491 14.334724 -8.593047 140 144 139 137
-3.978780 14.461004 -8.556300 140 144 139 137
-1.287624 6.079574 -7.981459 166 169 166 164
-0.467794 8.132931 -8.106212 89 96 87 81
-20.064958 17.229967 -8.712434 14 12 15 17
-9.046810 22.864802 -9.047628 142 146 141 138
-16.197223 4.691977 -8.189308 60 62 60 61
-8.636546 19.400166 -8.935404 164 168 164 161
-8.442012 10.487783 -8.438653 129 134 128 126
-0.018195 10.888552 -8.381588 159 174 157 131
-3.745251 10.202575 -8.260972 150 156 149 146
-1.103596 13.633393 -8.614350 158 174 155 132
-16.649784 20.252388 -9.307614 61 63 60 61
-19.947576 6.996582 -7.983052 71 95 64 44
-13.925420 -2.203632 -7.767852 44 45 44 45
-14.041209 0.349521 -7.906217 46 46 46 48
-2.564860 14.321253 -8.575992 101 109 99 91
-19.322097 4.777935 -7.876349 20 17 21 24
-18.871869 21.763724 -9.498522 73 79 72 71
-20.086565 19.731332 -9.442897 57 63 56 55
-18.814286 18.039712 -9.244502 117 119 117 116
-19.197112 11.799811 -8.801037 52 53 52 51
-12.858988 28.036137 -9.464712 132 135 131 130
-11.633745 25.992428 -9.268214 209 209 209 209
-18.311832 9.022443 -8.583083 48 49 49 48
-6.688135 24.045766 -9.118978 223 227 223 218
-14.476141 -4.652859 -7.606565 113 112 113 117
-4.210266 18.556183 -8.824929 142 149 140 134
-6.019292 13.526260 -8.529355 199 204 198 196
-3.867239 18.406487 -8.888764 168 178 167 154
-2.324244 16.402194 -8.709962 201 217 199 176
-3.044226 12.168663 -8.380799 176 180 175 172
-2.279946 11.392394 -8.353256 232 234 232 227
-5.557121 1.164146 -7.726689 171 172 172 168
-17.514023 24.379238 -9.633603 161 162 161 162
-15.378240 -1.108153 -7.876449 59 59 59 63
-3.797394 20.167722 -8.950123 195 209 193 174
-5.266187 17.728486 -8.838261 186 191 185 183
-6.194491 11.178369 -8.421128 207 211 207 204
-4.885162 15.401243 -8.608467 191 195 191 189
-10.003734 -4.131213 -7.581211 93 94 93 93
-21.245557 16.035343 -9.131776 115 116 116 114
-22.309458 12.978792 -8.926866 97 98 97 96
-4.464970 19.976081 -8.997981 163 173 161 148
-5.480574 15.446941 -8.645209 203 207 202 200
-5.777567 15.433600 -8.653583 206 210 206 204
-13.457099 -4.821216 -7.672151 62 63 62 61
-11.314041 27.489131 -9.402686 184 186 184 185
-3.325996 13.279384 -8.491679 184 188 183 182
-14.109508 -6.499718 -7.436852 123 121 124 128
-9.406927 23.267887 -9.121605 192 193 192 193
-5.886105 10.900093 -8.529281 214 215 214 212
1.241775 -3.522391 -7.310289 154 159 153 150
-1.853739 4.047956 -7.850530 151 155 151 147
1.531270 -3.264563 -7.337850 151 156 150 146
3.158651 -2.268528 -7.435934 94 99 93 88
-2.076610 3.425404 -7.845041 185 186 185 184
-2.805965 -3.480419 -7.467665 175 175 176 178
0.555458 -1.210845 -7.501570 163 169 162 159
-1.849520 3.647910 -7.828592 191 193 191 189
-1.768135 3.490660 -7.826835 188 190 188 186
1.555586 1.072513 -7.651820 182 185 181 180
0.033962 2.170587 -7.744726 186 187 186 185
-2.521673 -6.845661 -7.163145 120 122 120 122
-2.391048 2.168296 -7.613271 199 202 199 198
-1.030006 -5.654268 -7.200958 174 174 175 177
0.026851 -3.146665 -7.332635 200 201 200 200
-0.391962 -3.383734 -7.408232 203 204 203 203
-9.335523 -8.027653 -7.280145 162 166 162 158
-2.235591 -5.003050 -7.326992 113 114 113 115
-1.684791 -5.003984 -7.286930 135 136 135 136
4.634921 -3.894438 -7.390752 182 186 182 173
-13.830742 -6.742450 -7.469457 147 145 148 152
-10.269404 -5.922596 -7.482865 94 94 94 95
-3.802490 -8.616540 -7.152740 105 108 105 102
-1.773822 -5.328174 -7.257815 131 132 132 131
-1.809313 -14.334539 -6.678733 71 72 72 71
3.093958 -8.427824 -7.034345 145 150 144 141
-2.659536 -5.796739 -7.303627 109 110 109 112
3.081058 -7.854431 -7.102557 148 152 147 143
0.791097 -14.039999 -6.602453 101 102 101 102
-1.795949 -8.262372 -7.116943 127 126 128 130
-0.241967 -10.266919 -6.934771 142 145 142 141
2.726516 -7.036134 -7.166687 151 154 150 150
2.491329 -6.284036 -7.177469 147 151 146 144
4.346322 -9.250206 -6.979829 144 148 144 140
3.710620 -9.651267 -6.907124 146 150 145 141
-14.047296 -6.662888 -7.506902 144 143 144 148
-8.389654 -13.380744 -6.935386 174 178 173 170
-1.540298 -6.112115 -7.256977 161 162 161 163
-1.517156 -8.122751 -7.110045 190 192 190 190
-0.332287 -7.949610 -7.094971 191 191 191 191
2.344277 -5.060809 -7.253104 179 184 178 176
-10.600687 -6.084207 -7.456407 142 140 143 146
-3.705231 -8.510619 -7.174428 171 172 171 173
-1.580324 -9.030924 -7.061509 175 178 175 175
0.084729 -7.107870 -7.203858 170 170 170 172
2.207404 -6.070288 -7.195207 189 192 189 188
-0.409035 -13.364943 -6.671275 136 135 136 139
-14.706090 -8.670080 2.066939 112 95 117 132
-14.488193 -9.110436 0.477188 113 98 118 130
-1.624091 -8.058078 -7.083556 183 183 183 184
2.267126 -7.993011 -7.021425 181 179 182 184
-1.755028 -5.973295 -7.234224 171 172 171 173
-10.471376 -11.071426 -7.155419 198 196 199 199
-2.117100 -7.187303 -7.132760 168 168 169 170
-10.124872 -16.308943 -6.768120 90 93 90 86
-7.257797 -16.030930 -6.659454 89 93 89 83
-4.742216 -15.576083 -6.763672 99 102 99 94
-4.544518 -15.427350 -6.753875 92 96 92 86
-4.265040 -15.270435 -6.741434 94 98 94 89
-11.254723 -12.952790 -6.994054 143 142 144 143
-7.253683 -16.022623 -6.730819 88 92 88 83
-1.348537 -14.432674 -6.665028 59 59 59 60
-3.857134 -21.923775 -9.520325 51 53 51 53
-8.352959 -17.032555 -6.233548 77 70 90 28
-2.389073 -14.548234 -6.694500 140 143 140 132
-13.852252 -15.001454 -7.019491 165 166 166 164
-14.598300 -15.112631 -7.013897 173 173 174 175
-11.204473 -13.090011 -6.799523 165 167 165 164
-8.174568 -16.664882 -6.729624 131 132 132 130
-1.548093 -14.589552 -6.776577 82 81 82 86
-9.548774 -17.429459 -6.740397 95 98 96 90
-9.977652 -17.614244 -6.740933 93 94 94 88
-6.002606 -16.153637 -6.683506 129 130 129 128
3.868381 -8.328345 -7.018430 146 150 145 144
3.623498 -8.313256 -6.990836 156 159 156 154
-3.988544 -7.241182 -7.325354 122 123 122 124
-19.694317 21.398180 -9.501680 75 79 74 72
-19.769157 21.684555 -9.572370 88 91 88 84
-21.686303 15.727318 -9.171762 102 103 102 101
-20.026286 17.432578 -9.218893 46 50 46 44
-21.798162 15.078933 -9.141129 65 67 65 63
-14.315179 27.136507 -9.327684 132 133 132 131
-13.529086 26.948127 -9.314985 180 181 181 181
-11.668162 29.367982 -9.498527 136 140 135 134
-12.330174 27.634467 -9.423454 159 161 159 159
-19.933236 9.274546 -8.550085 28 29 28 27
-15.283604 19.094668 -9.179446 78 79 78 81
-16.897842 15.143208 -8.858470 77 80 77 77
-14.487338 17.458662 -8.947831 74 75 74 78
-10.707078 25.972696 -9.249246 123 126 123 123
-10.050128 27.347111 -9.283437 127 131 126 125
-10.222688 25.374817 -9.250711 144 145 144 143
-10.307643 23.784262 -9.198605 124 126 124 124
-12.089011 18.820796 -8.774010 190 187 192 194
-18.012488 4.601076 -8.315080 48 49 48 47
-9.777700 23.101130 -9.242382 154 158 153 150
-17.381470 6.072317 -8.399377 57 59 57 58
-8.763024 24.867280 -9.223320 140 144 139 136
-9.507246 21.750372 -9.151205 139 143 138 136
-15.805364 4.812262 -8.229291 69 69 69 70
-8.922478 18.364315 -8.840209 154 158 153 151
-6.938230 19.990504 -8.956224 145 147 145 143
-5.676600 22.875541 -9.092709 98 104 97 91
-5.848077 21.359916 -9.070268 175 177 176 172
-4.562548 21.300732 -9.020780 173 186 171 154
-4.353744 21.948254 -9.065628 167 181 165 147
-3.822135 21.476305 -9.084826 130 144 127 110
-5.465040 16.116308 -8.685779 151 156 150 147
-2.915310 20.782279 -9.267596 171 182 170 148
-4.006981 14.702456 -8.555275 142 146 141 138
-3.139158 10.000301 -8.212254 147 149 147 145
-2.942468 10.377227 -8.272413 152 155 152 149
-10.713307 -7.607300 -7.430093 141 137 143 145
-9.964682 -6.121430 -7.433822 107 108 107 107
-8.696991 -5.127762 -7.551008 147 145 148 149
-2.255340 8.905672 -8.138441 164 168 164 161
-8.065788 -4.321625 -7.581440 149 146 150 153
-4.106024 3.893638 -7.862176 175 176 175 174
1.820420 16.138740 -6.669079 125 132 126 101
-3.564732 3.510441 -7.827778 165 169 165 163
-3.617358 2.486757 -7.773808 187 189 187 183
-3.658910 1.744462 -7.760470 162 166 162 157
3.017855 14.757051 -5.858154 159 172 157 137
-3.312548 1.540295 -7.753651 198 201 198 192
-1.991446 4.238498 -7.852392 143 148 142 140
-3.356813 -0.079661 -7.671746 135 144 133 127
-25.192137 21.639015 -9.772583 60 65 59 59
-21.796381 22.965842 -9.614590 40 42 39 40
-23.237864 17.789898 -9.086337 79 109 73 31
-23.061066 15.544181 -8.578378 73 98 69 35
-17.888002 24.548169 -9.811477 38 40 38 37
-18.846023 20.060574 -9.393990 62 66 62 60
-21.261187 13.735720 -9.094702 45 46 45 44
-18.633090 18.411698 -9.230213 76 79 75 74
-14.595839 27.211104 -9.285212 84 88 83 80
-19.520373 12.689674 -8.797393 36 38 37 34
-15.334717 21.052923 -9.518271 73 74 72 77
-12.792370 26.816886 -9.358394 132 138 131 130
-12.748920 25.531620 -9.314996 166 165 168 167
-11.498504 29.568267 -9.640401 128 133 127 127
-17.712150 6.923560 -8.445176 43 45 43 43
-11.380781 16.781522 -8.606444 187 185 188 191
-9.694822 18.770336 -8.936122 125 131 124 118
-6.244282 24.667424 -9.240105 92 99 91 83
-6.709669 20.479007 -9.067857 136 140 135 133
-11.560731 9.469042 -8.590266 61 63 61 61
-4.607470 20.681696 -9.031606 156 169 153 138
-7.492447 13.854372 -8.208334 79 80 80 80
-14.332905 -4.096862 -7.735776 56 57 57 57
-3.939804 19.075253 -8.923722 137 147 138 113
-5.011458 17.321953 -8.744727 137 141 136 133
-2.768650 21.831142 -8.918695 158 174 156 134
-6.389611 8.877738 -8.279670 140 143 140 139
-6.580753 4.394672 -7.914391 81 82 81 81
-3.089832 1.605197 -7.743651 153 157 153 149
-21.647837 23.178574 -8.730475 23 21 24 27
-22.701012 16.740266 -8.587632 74 97 73 24
-20.355994 21.343707 -9.571308 74 78 74 72
-18.259589 22.077855 -9.612924 78 83 76 76
-13.936627 26.442891 -9.329492 140 142 140 139
-11.624138 29.072085 -9.633784 128 130 128 129
-18.330963 5.453066 -8.285413 74 75 74 74
-11.811971 17.935952 -8.660160 187 184 189 192
-10.446176 16.119988 -7.676692 83 85 83 82
-9.770035 17.251455 -7.688295 117 123 116 114
-8.701869 8.971741 -8.236645 190 186 192 196
-5.296006 17.394508 -8.923148 142 146 141 138
-7.117197 11.945515 -8.515702 155 159 155 152
-2.549966 21.122081 -8.891909 158 172 155 137
-4.576678 16.138116 -8.687474 152 155 152 151
-4.138049 14.945796 -8.461214 149 153 148 145
-11.567850 -4.436863 -7.564299 69 69 69 71
-5.910176 9.772670 -8.307014 168 172 167 164
-3.630244 14.883390 -8.571237 129 132 128 127
-3.994209 13.657083 -8.464494 159 162 159 155
-2.196444 8.039941 -8.087026 145 149 144 141
0.661573 9.060813 -8.151613 137 149 139 101
-24.309168 20.643855 -9.602740 48 51 48 46
-20.332033 22.326880 -9.562701 69 78 67 64
-19.650725 21.147563 -9.540180 66 70 65 63
-14.086925 26.997761 -9.345166 123 126 123 122
-16.148427 21.968494 -9.513670 60 59 60 64
-12.925177 27.813932 -9.391206 115 118 114 113
-15.108426 18.535206 -9.203841 64 63 64 68
-14.518711 17.063454 -9.087102 71 74 70 74
-10.967493 26.784499 -9.258940 129 130 129 130
-9.155464 23.032890 -9.229267 144 148 144 141
-7.507042 18.284103 -8.905536 151 158 150 146
-3.995364 21.906957 -9.109492 152 165 150 132
-4.678046 20.092695 -9.005454 97 104 96 91
-3.484408 14.396287 -8.520300 136 139 136 132
-3.002017 13.079906 -8.423544 126 127 126 124
-23.367106 18.334600 -8.982387 82 116 76 22
-20.515879 19.326542 -7.970694 21 18 23 23
-20.090002 20.963621 -9.499143 61 66 60 59
-11.528065 28.796021 -9.521276 130 132 130 130
-10.928875 9.427756 -8.505160 88 91 87 87
-13.642846 -6.845712 -7.430470 117 115 118 122
-3.712109 11.489825 -8.421374 142 146 141 139
-4.462653 10.760683 -8.216364 153 160 152 147
-3.977955 12.005898 -8.267925 163 167 163 160
-3.313528 2.422158 -7.857759 157 161 157 152
-19.988909 18.050556 -9.201245 23 23 23 24
-14.646436 25.402245 -9.109174 181 177 183 186
-14.393008 24.703063 -9.117452 183 180 185 189
-15.132573 26.594951 -9.287877 182 178 184 189
-12.312134 18.636698 -8.693641 185 181 187 192
-8.508668 24.319235 -9.108047 137 143 136 133
-6.140569 24.457895 -9.050974 110 117 109 99
-3.417737 20.008179 -8.951429 173 186 171 151
-3.149172 21.260214 -9.381180 165 179 163 143
-19.753481 21.531464 -9.808252 77 81 76 75
-17.285241 18.085967 -9.169955 60 64 59 57
-8.899691 25.333703 -9.205511 140 144 139 137
-8.687027 20.172050 -8.913064 156 162 154 151
-9.721973 21.520077 -8.837689 100 102 99 101
-14.682453 8.972218 -7.274527 21 13 23 37
-13.256738 -4.292017 -7.709526 55 57 55 55
-10.562632 -5.738696 -7.526049 73 73 74 76
-21.088429 22.613919 -9.767706 61 67 60 55
-20.153653 17.271460 -9.000771 50 48 51 54
-16.531251 20.171258 -9.466443 71 72 71 72
-17.512174 12.133717 -8.828041 50 51 50 48
-8.297948 13.120328 -7.004398 87 71 93 99
-16.497137 3.990114 -8.559629 51 52 51 51
-1.262325 13.606106 -8.616847 182 200 178 157
-18.179485 20.133559 -9.197645 68 72 67 65
-14.600737 28.140487 -9.461329 123 126 122 121
-10.022613 19.158150 -8.805678 65 64 66 69
-5.151251 21.550897 -8.945051 122 130 120 111
-1.714149 11.799665 -8.265186 95 103 94 87
-10.184248 -2.158578 -6.613534 60 50 65 61
-19.622287 22.981558 -9.633434 65 71 64 59
-18.027483 23.401563 -9.593885 68 72 67 68
-22.884595 14.704149 -9.078932 23 20 25 28
-20.416121 9.595228 -7.698044 58 48 61 72
-17.614703 2.606190 -8.153624 41 41 42 43
-24.517874 20.145852 -9.507808 69 71 69 64
-23.279829 18.390987 -8.382979 125 170 120 32
-23.883202 18.000600 -9.111606 176 177 176 180
-21.136791 20.987211 -9.553312 95 96 96 93
-20.875724 23.275308 -9.723018 165 158 169 168
-19.825089 20.527545 -9.523390 124 128 124 122
-15.437528 25.101567 -8.818341 170 161 173 181
-20.696617 10.268145 -7.533276 82 70 86 95
-15.702813 25.104524 -9.676169 149 156 148 137
-14.698237 23.038066 -8.738533 149 156 148 138
-20.098787 12.550826 -8.772828 61 63 61 60
-12.253682 27.763644 -9.363627 215 218 215 215
-16.775331 18.013473 -9.164204 159 154 161 163
-12.001484 28.005993 -9.439404 190 191 190 190
-12.155034 27.503201 -9.318832 221 223 221 221
-11.497197 27.114974 -9.326405 185 185 186 187
-18.108641 9.069678 -8.579762 48 48 48 48
-10.255347 21.913088 -9.116716 149 147 151 152
-10.365810 22.236110 -9.143064 159 159 160 162
-18.455686 4.941074 -8.388325 51 54 51 50
-8.788221 24.223573 -9.228458 180 183 180 179
-8.953133 24.201940 -9.191715 189 190 189 191
-9.296539 22.738123 -9.148680 192 196 192 188
-9.879187 20.789130 -9.089515 162 160 164 165
-7.575909 26.567735 -9.323034 226 230 225 222
-6.893326 26.151581 -9.298119 135 142 133 127
-7.177064 25.426162 -9.248987 213 217 213 209
-6.904515 24.646119 -9.149916 223 228 222 219
-5.026959 24.024240 -9.149494 196 210 195 172
-6.911537 20.155069 -8.986738 185 188 184 183
-5.429573 21.938618 -9.037470 129 136 127 122
-10.879695 9.106598 -8.543484 88 90 87 89
-4.970454 19.083143 -8.906164 224 227 224 219
-6.117178 16.857931 -8.719176 199 203 199 196
-6.682390 15.282191 -8.646713 193 198 192 189
-5.652485 15.217165 -8.609251 204 208 204 201
-7.048867 12.098857 -8.458612 250 252 251 248
-4.185999 16.867780 -8.745255 219 222 219 214
-5.147963 14.295899 -8.509959 202 206 201 198
-3.760356 14.777251 -8.535149 178 182 178 176
-4.093140 13.044056 -8.436714 198 199 198 196
-6.075775 9.282347 -8.304386 205 206 205 203
-6.103266 8.008378 -8.199373 192 194 192 192
-5.010786 7.325171 -8.105225 211 215 210 207
-3.097608 10.115017 -8.275880 197 199 197 196
-2.911798 9.663644 -8.182651 199 202 199 197
-2.792571 10.652842 -8.231501 179 183 179 176
-3.138754 9.662547 -8.180410 175 179 174 171
-10.211982 -7.388718 -7.470589 180 180 181 179
-10.342735 -7.314953 -7.411073 190 188 192 192
-1.989038 6.976318 -8.019565 198 202 197 195
-4.057599 0.286661 -7.711564 164 168 163 161
-4.618969 -1.423886 -7.514700 198 202 198 192
-24.927305 21.505897 -9.720210 113 115 113 111
-24.627136 20.536462 -9.623271 85 87 85 81
-24.087746 18.345031 -9.044578 107 124 104 83
-23.914444 16.627597 -7.622513 144 159 143 113
-23.383447 15.208951 -8.849156 132 135 133 124
-20.525317 21.694580 -9.625184 125 128 125 122
-20.314532 18.578588 -8.439856 116 102 121 134
-15.699565 27.746503 -9.241722 180 176 182 187
-18.187613 20.186441 -9.418140 76 80 76 74
-19.334379 8.674352 -8.576934 51 55 51 49
-12.479351 18.367127 -8.728560 187 183 189 194
-10.054249 25.328063 -9.178225 188 191 187 186
-3.525851 21.834624 -9.247911 184 195 183 165
-8.888995 10.585143 -8.291393 195 197 195 191
-9.534286 8.290705 -7.932139 157 162 157 149
-4.123642 18.285847 -8.886520 136 143 135 128
-1.967098 16.491833 -8.778813 201 212 200 183
-0.707331 17.798578 -8.417867 172 183 176 128
-3.239204 11.515158 -8.300437 190 193 189 188
-0.811082 16.033040 -8.581456 215 225 214 195
-8.839827 -6.082762 -7.461843 191 189 192 192
-1.857128 10.219831 -8.164133 243 244 244 241
2.596707 15.995152 -6.036203 182 194 182 158
-3.419233 1.063267 -7.736671 200 203 200 198
-0.586466 6.539478 -7.999833 241 243 242 238
-21.709192 22.788040 -9.654434 169 158 173 178
-17.004883 24.631249 -9.713701 147 146 149 148
-14.442714 27.333821 -9.389460 185 187 185 183
-16.946508 25.041970 -9.687787 178 173 180 181
-16.785570 24.713774 -9.712335 155 154 157 156
-11.492484 29.168236 -9.484058 185 188 184 184
-10.347397 25.951730 -9.257797 188 191 187 186
-8.236428 21.686428 -9.074619 155 161 154 149
-11.059093 14.486432 -8.492084 191 187 193 197
-15.286319 -0.314475 -7.932360 41 41 41 45
-4.305915 20.664234 -8.984646 200 213 198 180
-14.802270 -6.244765 -6.942431 124 169 120 30
-2.890253 0.628254 -7.756554 233 250 236 175
-24.042234 18.138061 -8.456461 132 144 130 113
-19.626002 23.268148 -9.813276 69 74 68 64
-20.436098 19.335264 -9.417743 69 73 68 66
-23.001546 13.926366 -8.771885 166 165 167 166
-17.763433 20.455827 -9.440089 152 152 152 153
-17.156828 15.282387 -8.951420 100 104 99 97
-11.228732 26.924227 -9.315027 183 183 184 185
-14.007641 20.675601 -8.652596 129 136 128 118
-8.528524 19.061477 -9.001219 186 191 185 182
-8.344110 20.084743 -8.939818 197 201 196 193
-7.931239 18.921662 -9.019289 196 200 195 192
-7.998558 19.160665 -8.875602 197 201 197 194
-5.602324 22.225536 -9.023599 141 148 139 134
-3.943554 22.900594 -9.201709 176 187 175 158
-6.054659 16.271713 -8.830478 203 207 203 200
-14.229834 -2.917736 -7.694213 50 51 50 50
-3.817770 22.591862 -9.242316 186 195 185 169
-2.992879 18.259784 -8.836346 197 212 194 173
-1.438238 19.197710 -8.730643 156 165 158 124
-2.973560 15.960719 -8.753066 164 176 162 149
-4.510948 11.947212 -8.277021 200 204 199 196
-4.016583 10.154018 -8.223605 202 207 201 198
-10.615031 -4.558581 -7.589248 98 98 98 98
-1.465071 15.841323 -8.916059 171 182 169 153
-2.868226 10.629575 -8.238654 190 194 190 188
-9.225420 -5.059188 -7.599225 108 105 109 112
-22.290639 16.531283 -9.218375 110 113 109 108
-22.763790 16.448346 -8.450085 151 180 153 64
-20.171544 18.352655 -8.466721 107 94 112 124
-18.411046 16.491020 -9.122937 76 81 75 72
-11.827522 28.958497 -9.481773 178 180 178 179
-17.420918 15.438559 -8.596859 76 81 75 72
-14.634262 26.525848 -9.307217 196 197 196 194
-14.387078 25.868653 -9.145550 202 201 203 200
-16.838045 15.950715 -8.966179 75 78 75 73
-15.087312 8.996023 -7.186093 137 82 159 172
-9.217877 24.170728 -9.095697 173 175 173 173
-4.629021 22.584931 -9.048984 182 197 179 160
-13.841810 1.937272 -7.852746 65 67 65 63
-4.885840 15.528093 -8.579898 190 193 189 188
-5.513349 14.278845 -8.551843 205 209 205 202
-11.127268 -5.157864 -7.528786 90 90 90 92
-20.775895 20.314526 -9.829125 54 58 53 49
-6.508073 19.155787 -8.803861 186 189 186 184
-7.526347 13.728528 -7.430161 215 209 218 220
-17.564090 19.419765 -9.299582 158 156 159 163
-16.009615 17.253789 -9.221463 85 87 84 85
-8.727642 16.842634 -7.490830 253 253 254 254
-7.476325 17.295858 -8.853248 189 191 189 186
-22.700607 16.313285 -8.364809 151 183 153 56
-20.283760 21.916111 -9.687977 129 133 128 125
-20.530187 17.862330 -8.808570 114 102 119 129
-21.340625 9.599520 -7.177140 165 165 166 165
-17.073423 15.180052 -8.870782 102 106 101 99
-17.101670 1.844944 -7.952435 46 47 46 47
-3.933530 12.899432 -8.397908 197 198 197 195
-1.747094 18.358270 -8.673956 219 228 219 201
-13.874021 9.514583 -7.657061 83 58 90 121
-10.819434 -2.690703 -6.835326 228 214 233 242
-9.322723 22.189199 -9.195900 195 196 195 193
-3.624750 12.049373 -8.464656 195 196 195 193
-2.867966 16.752272 -8.718347 171 188 168 149
-13.163157 26.215437 -9.275028 191 191 192 192
-18.817033 1.202171 -6.640563 170 169 172 171
-5.854828 16.460581 -8.883645 207 211 206 203
-13.678566 -1.005794 -7.789776 58 58 58 60
-4.104848 0.702253 -7.721071 121 125 121 119
-3.160301 0.291851 -7.665706 146 149 146 143
-4.714544 -7.165826 -7.260986 144 144 145 146
1.372348 1.847766 -7.710795 126 128 126 124
-3.916270 2.345842 -7.831487 146 150 146 144
-1.273540 -6.407526 -7.176688 155 155 156 158
-0.811620 -7.558499 -7.087547 152 150 153 155
-1.454890 3.868628 -7.938597 154 157 154 152
-2.497266 -6.467365 -7.272007 111 111 111 113
-0.403832 1.652205 -7.723582 145 148 145 142
-3.991432 -7.791400 -7.185515 101 102 101 101
-1.576921 2.386156 -7.826210 189 191 189 190
-14.824894 3.607324 -8.089572 73 75 73 74
-3.772629 2.371603 -7.769290 175 179 175 172
-3.016584 0.312276 -7.670736 196 198 196 193
-0.895764 1.749577 -7.723362 192 196 192 190
-0.360822 2.038059 -7.742064 191 193 191 191
0.573507 1.987318 -7.714560 183 185 183 184
-16.987991 -2.753233 -5.275823 134 134 135 133
0.899237 2.264851 -7.760259 243 243 244 241
-2.548622 0.421527 -7.653407 202 205 201 200
-0.142106 3.821110 -7.827011 189 191 189 188
0.685787 1.863567 -7.724168 179 181 179 179
1.510768 1.391052 -7.703983 174 176 174 173
-14.151489 -6.491542 -7.406744 141 140 142 146
-2.991100 2.406133 -7.787559 201 204 201 198
-0.828323 3.474880 -7.840612 191 192 192 191
-3.924809 -7.229779 -7.216070 109 109 109 110
-0.952863 2.062606 -7.726245 192 195 192 191
-2.773266 -2.661715 -7.473363 192 193 192 192
-3.083470 -7.013829 -7.228816 119 119 119 120
-3.607244 0.022364 -7.673349 216 246 219 121
-17.166311 -2.175136 -5.198333 176 178 177 173
-1.381671 -5.889225 -7.327749 131 132 131 131
-10.225337 -10.295491 -7.142087 167 167 168 167
-4.144763 -6.116828 -7.429831 106 107 107 107
-0.805249 -7.300460 -7.229121 157 155 158 160
-14.313991 -9.902406 -2.797001 110 94 115 129
-13.375314 -12.819852 -7.046984 143 143 144 145
-4.784228 -9.827556 -7.236401 126 126 126 129
-4.928115 -10.020150 -7.144424 128 128 128 131
-2.223006 -5.593874 -7.432889 109 109 109 112
-7.299345 -5.892968 -7.525505 142 144 142 139
-3.490733 -15.547700 -6.774471 94 97 94 90
-14.255105 -9.505013 0.273004 111 96 116 132
-16.465852 -3.973144 -5.827934 169 173 170 157
-14.819464 -4.833186 -7.631034 126 125 127 129
-11.278716 -5.650222 -7.506396 121 121 121 122
-10.218547 -6.143317 -7.493966 144 143 145 147
-1.468835 -6.193606 -7.333712 165 165 165 166
-14.125472 -9.818618 -0.080201 116 100 121 135
-14.908653 -8.266162 -4.725790 191 193 192 188
-10.968275 -11.899185 -7.140613 184 185 185 185
-7.856577 -5.630805 -7.486074 196 197 197 195
-6.983126 -5.813374 -7.530522 183 185 184 181
-5.095951 -7.667765 -7.271749 153 153 154 156
-4.639708 -8.376071 -7.373825 156 155 156 161
-0.042322 -5.199798 -7.388484 169 168 170 171
-14.717076 -8.174253 -3.488975 137 124 142 154
-14.992756 -7.800977 -5.490317 160 175 157 137
-14.238431 -9.814494 -2.506328 130 114 135 148
-12.615195 -3.212448 -7.776417 76 76 76 78
-11.114878 -11.047770 -7.111131 177 177 178 179
-11.279153 -12.494886 -6.970332 177 176 178 180
-4.893519 -10.358149 -7.044152 162 161 162 166
-3.082735 -15.411616 -5.428971 157 159 157 156
-4.561493 -8.698253 -7.529763 155 154 155 158
-10.893766 -4.132201 -7.737916 94 94 94 95
-14.480900 -9.048590 -1.322338 114 98 119 133
-14.457052 -8.940780 -0.323429 115 100 119 135
-1.542590 6.184772 -8.013037 151 149 152 154
-3.949817 3.052350 -7.820941 150 152 150 147
-16.899627 -2.157790 -3.521609 100 84 105 118
-16.629935 -3.532229 -4.670232 99 81 107 107
-14.029858 -1.861165 -7.463260 54 55 54 54
-16.892756 -2.679479 -4.696042 109 91 117 117
-15.909138 -3.810754 -6.991365 50 65 47 31
-8.866756 1.842291 -7.384689 147 125 156 167
-3.655282 3.310557 -7.844731 148 151 148 145
-16.572900 -3.557587 -4.447061 85 73 91 90
-16.902464 -2.650472 -5.370418 81 88 80 74
-4.951959 1.017135 -7.684637 129 128 130 131
-3.710081 1.110857 -7.713091 148 150 148 144
-16.812911 -2.553168 -3.713325 114 98 119 133
-11.820032 -1.026875 -7.749193 56 56 56 58
-13.997473 -3.366632 -7.619904 57 60 56 56
-14.526604 4.044757 -8.093426 81 83 81 80
-14.948422 1.349722 -8.029396 55 56 55 56
-15.168070 -4.508397 -6.557009 52 64 50 39
-12.848551 -1.347963 -7.724812 65 65 65 68
-17.022786 0.106758 -6.942761 37 32 38 46
-14.854695 3.655502 -7.887716 72 74 72 72
-15.222619 -3.832575 -6.687398 82 105 80 31
-10.952967 -0.693336 -7.885886 46 45 46 49
-11.060564 -5.408871 -7.541645 97 97 97 100
-15.731121 -5.715874 -5.673756 163 179 160 137
-17.049848 -1.792008 -2.982385 119 103 124 139
-12.058515 1.035446 -7.145072 158 142 163 179
-17.362038 -1.161758 -3.129594 118 102 124 138
-13.555575 -5.929937 -7.361547 125 124 126 127
-17.164662 -1.521620 -1.647184 116 100 121 137
-16.499443 -2.963199 -3.862925 145 130 150 161
-17.033116 -0.587728 -7.624506 82 105 76 57
-15.846476 -2.274407 -6.542886 153 194 144 98
-7.349817 -0.772229 -6.879449 228 218 233 234
-15.029551 -4.526470 -6.561010 150 183 153 44
-11.125495 -5.485714 -7.496240 128 128 129 129
-16.528514 -0.929089 -7.762524 75 91 71 60
-7.252352 2.121301 -7.212265 185 189 185 178
-17.397870 0.816432 -6.527312 159 101 180 206
-16.235469 0.657281 -7.934462 58 58 58 60
-15.182855 2.994842 -8.062021 100 100 100 102
-7.299493 2.261591 -7.431044 180 183 180 175
-2.207931 3.219261 -7.756117 199 200 200 199
-15.987208 -1.459127 -7.701903 104 105 104 106
-17.802964 1.684834 -8.193703 49 49 49 49
-16.534059 -3.657707 -4.431171 152 156 152 147
-7.902634 -0.092350 -6.501585 239 231 243 242
-3.627109 3.596220 -7.807486 203 206 203 202
-3.804500 2.511418 -7.801583 180 184 180 177
-3.229284 2.874128 -7.813660 197 200 197 195
-7.599406 0.812654 -7.826718 213 202 218 224
-18.509696 2.716498 -8.125691 58 55 59 63
-16.380384 -3.837413 -4.522586 180 184 180 175
-14.205405 0.599757 -7.905038 66 67 66 69
-10.288618 -6.444891 -7.418051 170 168 171 174
-13.437903 -6.992077 -7.357429 136 133 137 140
-10.083564 -4.541246 -7.522776 75 74 76 78
-12.613591 -5.884933 -7.496138 60 61 60 61
-10.295861 -4.348553 -7.549968 85 85 85 87
-14.003166 -4.937616 -7.535229 78 79 78 76
-11.812124 -3.807937 -7.654424 82 83 82 83
-16.596083 -3.808245 -7.279411 25 25 26 26
-13.215850 -6.731946 -7.616982 136 134 137 140
-15.183085 -3.556554 -7.833455 100 100 100 100
-8.467705 -5.503866 -7.595701 183 182 184 183
-10.908770 -6.163192 -7.466159 139 138 140 145
-9.365656 -5.522275 -7.579650 76 76 77 77
-14.262973 -4.907495 -7.758382 78 79 78 79
-12.308297 -5.026128 -7.443408 87 86 88 87
-15.087148 -3.921826 -7.609622 127 125 128 131
-10.223143 -4.116844 -7.555917 103 103 103 105
-12.478423 -4.595851 -7.615944 101 101 101 102
-15.473346 -2.876987 -7.735912 112 109 114 117
-11.886298 -6.598357 -7.561948 143 140 145 148
-11.568934 -6.423636 -7.557420 145 142 147 150
-10.679317 -6.520751 -7.484378 163 161 164 168
-15.241229 -3.742244 -7.680800 129 128 130 132
-9.697665 -5.247811 -7.414048 97 96 98 100
-13.898382 -7.086473 -7.466810 147 146 148 151
-11.611393 -7.693025 -7.270053 179 174 182 185
-12.978839 -6.019026 -7.508867 121 120 121 124
-13.813028 -5.897370 -7.598893 121 121 122 123
-11.930060 -4.267334 -7.628157 104 105 104 106
-10.753766 -5.845987 -7.549130 123 122 124 126
-16.705886 -3.761858 -7.268085 52 40 58 56
-11.020350 -6.344742 -7.561014 152 149 153 156
15.588238 -46.831825 -4.296738 147 147 147 147
-11.314742 -39.078314 -1.946846 149 149 150 149
12.768215 -46.342072 -4.388136 158 158 159 159
-20.570498 -37.700776 -2.075573 136 136 136 136
-8.764334 -36.473847 -1.803421 154 154 154 155
-12.428368 -35.387187 -1.295615 96 70 109 106
-21.093497 -36.550047 -2.314536 146 146 146 146
15.082523 -42.289122 -4.917529 151 151 152 154
11.098194 -41.511818 -4.734352 149 149 150 151
0.239066 -40.861642 -5.122793 129 133 129 123
-19.792963 -28.725380 -1.063937 145 151 144 138
19.477523 -34.910205 -3.389319 122 137 121 95
18.817682 -35.157697 -3.782535 113 130 111 84
-11.020363 -30.974664 -2.305385 144 142 145 150
-5.879561 -30.538273 -2.134760 139 142 139 139
13.289048 -36.031367 -4.938350 153 152 153 156
-11.947290 -28.388808 -1.566133 61 55 63 68
18.096815 -34.126543 -4.151483 113 124 115 74
-19.554179 -29.298438 -2.633986 104 105 105 102
14.889796 -34.591328 -5.083360 122 130 126 84
-9.890554 -28.399129 -2.471388 142 142 142 143
-10.265634 -28.297631 -2.394803 137 138 137 137
-20.791011 -25.839515 -1.869974 151 154 151 146
16.585485 -33.517844 -4.933183 113 118 120 62
-20.889029 -25.575985 -1.832216 156 159 156 152
-19.964736 -27.540000 -2.604175 64 71 62 60
-12.945535 -26.598258 -2.461462 111 113 111 112
18.520994 -28.430845 -2.859845 92 98 91 81
-20.480504 -26.181953 -2.335200 157 160 157 153
16.988185 -30.725751 -4.520994 104 112 107 70
-5.057509 -26.383172 -2.920715 179 180 179 177
5.442378 -30.290226 -5.447900 98 97 99 100
-4.397484 -28.185214 -5.131513 155 159 154 150
-7.554462 -23.192734 -2.553519 131 134 130 129
6.930708 -28.360885 -5.611429 137 137 138 140
-5.432683 -25.125944 -4.069497 152 155 152 147
-0.376042 -29.784554 -7.486099 137 136 137 141
-3.839676 -30.015088 -7.540768 93 102 91 83
15.046493 -24.037865 -4.542055 98 104 102 66
5.847942 -25.233945 -5.851351 136 138 136 137
15.042897 -22.360835 -4.564012 84 98 83 59
15.314681 -21.571358 -4.429929 112 123 110 94
-13.391735 -18.974092 -3.409828 125 126 126 125
17.124078 -16.356741 -0.978210 90 92 94 66
-7.300923 -16.912085 -2.739403 153 154 153 153
5.081825 -22.009509 -6.212519 140 142 139 140
10.940800 -21.000363 -6.199235 101 110 102 80
15.318043 -16.671126 -3.515223 93 96 94 83
-16.456791 -19.629299 -6.361878 32 31 33 33
9.063575 -19.169123 -6.339677 80 85 79 75
-8.257216 -17.433527 -5.432942 129 127 131 130
-15.380183 -18.129283 -6.914387 88 90 88 86
-4.475483 -16.063078 -5.044606 151 153 151 149
11.081996 -16.945328 -5.532623 69 62 80 35
-9.218572 -16.517091 -6.856320 105 110 105 99
-13.747723 -15.451919 -7.006167 127 128 127 126
13.395911 -12.793269 -4.473641 109 120 107 94
13.293379 -12.725505 -4.531624 113 122 112 100
4.139678 -14.133405 -6.590079 133 133 134 136
1.743738 -14.307661 -6.602112 129 129 129 130
-1.366219 -14.582624 -6.822710 78 79 78 80
-11.942323 -14.127923 -6.928649 159 159 159 160
-11.663332 -13.503059 -6.966961 133 133 133 133
-2.668203 -13.575860 -6.872034 126 130 125 121
-12.270288 -13.362203 -7.035576 129 129 130 132
2.226504 -12.936095 -6.679168 142 141 143 145
12.720234 -11.167238 -4.673018 128 137 127 111
-13.893128 -12.664340 -7.107816 155 157 155 156
1.276470 -12.229653 -6.795496 136 136 136 136
-13.146482 -10.887377 -7.279322 132 132 132 134
-8.777356 -9.844860 -7.130974 146 145 146 150
-1.579483 -9.843218 -6.969537 131 133 131 132
-3.552664 -9.285960 -7.017653 118 126 117 109
6.587283 -8.375825 -6.950181 119 128 122 81
-11.764899 -4.234501 -7.490178 104 105 104 106
-14.574129 -4.037225 -7.608498 90 90 90 90
3.054333 -3.764635 -7.279361 111 112 111 112
11.230920 -44.541658 -4.494401 161 161 162 162
-16.797900 -36.997664 -1.872690 69 16 94 88
0.517257 -43.620755 -4.144092 174 176 175 170
-7.785857 -37.128282 -1.871526 160 160 161 163
-11.207744 -36.559285 -1.939702 158 158 158 158
-2.392058 -34.094617 -0.947631 143 147 143 137
-11.117045 -35.885051 -2.031878 150 150 150 150
4.259488 -42.560849 -4.763606 117 117 118 120
3.601564 -42.705789 -4.750928 113 113 114 115
-20.437787 -35.859885 -2.520713 143 140 144 147
-10.252515 -34.743085 -1.842289 75 9 105 96
3.350223 -41.276550 -4.865093 106 106 107 109
-17.093343 -30.708374 -1.281957 36 30 38 43
7.690005 -41.128759 -4.966779 131 132 132 131
18.341612 -38.254498 -4.566952 114 126 116 76
-17.232566 -30.679537 -2.095750 26 24 27 28
-17.719620 -29.559244 -1.922129 35 29 37 42
15.805342 -35.423140 -5.089828 97 97 105 59
-17.815346 -29.807169 -2.506298 32 33 33 32
10.101083 -35.707702 -5.113909 146 146 147 147
12.419990 -34.618745 -5.175752 147 146 148 148
0.051125 -36.262177 -6.145446 110 114 109 106
9.901389 -33.844006 -5.192432 147 148 147 147
2.780549 -35.676705 -6.053199 101 101 101 104
-8.347982 -27.548557 -2.423813 143 144 143 143
-2.120766 -33.920263 -6.711596 128 134 127 117
-17.042935 -25.572344 -2.805930 122 128 120 121
-20.369384 -24.427069 -2.894238 73 77 72 69
-11.032729 -24.304735 -2.481375 130 137 128 128
-8.070914 -24.247660 -2.555523 134 156 124 130
-5.959253 -23.576001 -2.532393 178 184 177 169
17.444716 -18.618033 -0.861094 90 94 90 80
-2.972748 -29.058988 -7.970210 118 122 117 113
16.906053 -18.907290 -1.649825 55 58 56 43
0.278858 -18.438483 -1.916040 177 181 177 174
9.083591 -25.755384 -5.665410 143 144 143 143
16.785758 -18.463818 -1.928055 98 104 98 88
-10.633685 -17.966456 -2.211795 97 101 97 92
-10.979507 -18.090045 -2.226519 92 95 92 89
-12.645223 -18.747804 -3.168980 136 134 137 137
2.916094 -23.071522 -6.102027 55 56 56 55
-3.107095 -26.755130 -8.582174 97 101 97 95
-7.686782 -16.962087 -2.275491 94 99 94 89
7.441993 -20.664858 -6.127353 145 146 145 146
15.929617 -13.040077 -1.391811 63 66 63 59
14.433766 -14.476727 -3.937518 109 111 111 100
15.030823 -12.732657 -2.422350 105 111 104 96
1.124273 -17.894895 -6.564816 102 99 104 106
-10.785843 -17.526293 -6.732878 66 73 65 55
-7.204868 -17.044199 -6.666407 114 106 117 120
-6.534391 -16.804662 -6.668798 121 113 125 129
-9.643941 -14.715192 -6.914454 132 135 132 130
12.499209 -13.123539 -5.124462 97 104 97 84
-2.080457 -13.601014 -6.838232 95 95 95 96
12.721356 -11.436746 -4.665010 109 116 108 97
-10.397685 -12.781582 -7.044543 159 159 159 159
-14.676548 -11.797363 -7.278133 147 146 147 150
12.044082 -9.064737 -4.762212 121 132 119 106
-12.926599 -11.144523 -7.261009 122 120 123 126
11.147101 -8.719140 -5.249540 108 117 108 92
0.688587 -10.248095 -6.863835 140 140 140 141
-12.996509 -10.026712 -7.314226 156 153 157 161
-3.058722 -9.634462 -7.010339 128 128 129 130
-8.738166 -8.122170 -7.303049 141 145 141 139
-10.342067 -7.626607 -7.251468 164 163 165 169
11.260572 -5.439200 -4.512699 91 99 91 73
-13.898200 -6.281246 -7.427971 154 153 154 158
-7.315772 -38.240695 -1.758138 154 155 154 154
-11.103397 -38.376170 -2.015196 154 154 155 157
-12.396589 -35.522375 -1.891589 73 12 101 91
-11.977259 -34.505891 -2.046082 132 132 132 132
-14.639752 -35.369883 -2.303036 133 133 134 136
-9.882239 -35.662549 -2.073452 147 148 148 147
-8.969413 -33.825424 -1.975749 130 131 130 130
-15.021034 -34.173894 -2.233630 130 125 132 138
9.774553 -41.318518 -4.811633 160 161 160 160
14.068475 -40.014889 -4.764496 155 155 156 156
-12.025592 -33.621530 -2.096998 135 134 136 138
13.345844 -40.459992 -4.756525 155 155 155 155
11.280902 -40.606547 -4.760501 149 149 150 148
-8.325360 -31.759957 -2.005754 125 128 125 124
10.195542 -40.535293 -4.932834 161 161 161 161
10.210386 -39.655654 -5.105877 160 159 161 160
-20.036376 -27.989326 -0.176472 59 81 52 38
-17.121605 -30.229914 -1.442302 22 20 23 27
2.930729 -39.543612 -5.213990 106 103 107 111
17.070718 -38.458929 -4.937747 127 134 130 92
-19.704772 -28.490013 -1.003934 151 157 150 144
-10.101866 -30.779535 -2.332981 140 140 141 140
-18.832736 -29.356886 -2.224416 117 117 118 120
-13.970982 -28.706186 -1.983078 35 33 36 39
-7.670355 -29.708297 -2.033484 141 142 141 139
17.770400 -33.934900 -4.238528 93 99 98 53
-10.931087 -28.608991 -2.369598 126 126 126 127
-17.846652 -29.513322 -2.672963 83 85 82 83
-20.780012 -25.944155 -0.582933 68 95 60 44
1.518759 -35.499997 -6.188472 138 135 139 144
-10.591049 -28.282595 -2.275382 123 123 123 124
16.226224 -34.215887 -5.312441 128 133 128 119
-12.538642 -25.343485 -2.653037 132 133 132 130
-11.643779 -25.530837 -2.502067 120 122 120 119
-9.123297 -24.568527 -2.530059 127 131 125 128
-0.294668 -32.211909 -7.010870 96 97 96 98
13.101657 -27.938635 -5.730643 115 123 117 90
-14.595491 -19.460525 -3.546027 124 125 125 124
14.751472 -18.602151 -4.402961 94 100 95 80
-17.089263 -19.729770 -6.179967 15 16 16 15
15.066477 -16.878003 -3.835786 108 113 109 97
2.209255 -19.695973 -6.447678 123 119 125 131
3.942031 -18.411990 -6.321421 145 146 145 146
14.295517 -14.751236 -4.150922 106 109 107 93
-8.453176 -17.430001 -5.690213 128 127 130 129
12.362254 -17.192793 -5.632238 92 97 96 63
-15.357689 -17.206576 -6.797563 100 100 101 101
-1.673945 -14.992462 -5.754342 91 89 92 94
12.920431 -14.415979 -5.017589 78 85 78 61
-2.651071 -14.765374 -6.892908 92 100 91 83
10.250993 -12.422933 -6.058770 103 101 112 64
12.328841 -11.051763 -4.833687 118 126 117 106
-11.915802 -12.883825 -7.132596 163 163 164 166
12.631460 -10.452621 -4.560074 128 142 125 109
-8.136789 -11.625544 -7.094126 141 143 141 142
-10.159853 -9.756188 -7.237829 139 140 139 139
-12.111741 -9.792929 -7.244390 165 162 166 169
-12.346280 -4.904481 -7.519160 101 102 101 101
-12.542090 -4.768035 -7.569818 101 101 102 104
19.916549 -45.287600 -4.262383 115 127 114 90
16.238398 -44.626956 -4.519617 147 147 147 149
10.895005 -45.100751 -4.223289 155 154 156 159
2.329162 -45.507654 -4.539358 86 86 87 89
-20.612148 -37.157523 -2.182610 150 150 150 150
1.651940 -45.791810 -4.570388 121 123 121 120
10.735349 -43.907819 -4.518744 161 160 162 162
11.248480 -40.002046 -4.802369 158 158 158 158
17.956648 -38.960563 -5.064572 85 101 82 58
-8.524250 -32.595626 -1.897965 127 127 127 127
3.342579 -40.745595 -5.496727 123 120 124 127
20.642601 -36.014296 -2.872319 118 128 118 97
17.344205 -39.414190 -4.848927 133 139 138 92
-13.414489 -29.582665 -1.594212 30 10 30 87
-11.476813 -32.119307 -2.169069 138 138 138 139
3.107333 -38.363659 -5.558988 145 142 146 149
-8.245336 -31.000909 -2.216533 144 146 143 144
-10.245248 -29.053999 -2.359524 137 138 137 138
-12.092004 -27.613702 -1.730335 23 22 23 26
-5.234100 -25.625105 -1.567716 143 147 143 137
-12.558735 -27.657241 -1.587396 32 34 31 35
-11.811748 -27.997156 -1.492114 57 52 59 63
-9.847440 -26.257588 -2.353066 127 130 127 126
-0.021810 -34.099759 -6.572965 98 99 98 99
-8.325317 -26.305590 -2.402177 137 139 137 136
11.488771 -32.058992 -5.343468 148 148 148 149
-14.738568 -25.880919 -2.712257 138 141 137 136
9.802019 -30.436319 -5.452555 119 114 121 125
9.211417 -30.659218 -5.501254 128 123 131 134
-15.632202 -24.264176 -2.676998 131 135 131 129
-0.274843 -33.153492 -6.833631 105 105 105 106
14.631447 -29.540403 -5.621526 161 165 161 151
0.659985 -19.669841 -1.990538 180 184 180 177
-7.117360 -20.426989 -2.223080 143 146 143 139
16.780115 -15.849563 -0.945613 76 80 77 64
15.958052 -22.702512 -4.137144 114 127 112 96
16.482267 -16.668458 -1.539901 106 111 106 98
-10.354020 -17.874413 -2.269924 83 89 82 77
-15.923810 -19.990021 -4.480081 115 116 116 114
-8.821439 -17.361896 -2.310218 74 79 73 66
-8.622392 -17.403913 -3.582017 127 126 128 127
-8.382962 -17.158684 -2.285217 74 76 74 72
16.229314 -15.694887 -1.915891 80 85 80 73
15.748589 -13.121322 -1.712795 82 86 82 77
5.935960 -18.327518 -6.406796 161 161 161 161
14.794048 -11.728306 -2.433992 111 117 110 100
-2.371795 -15.198612 -6.822528 113 118 113 107
1.324305 -15.978046 -6.643311 129 129 129 131
-10.151171 -16.217526 -6.850951 114 118 114 110
-1.673579 -15.082352 -6.647638 87 83 89 91
-4.901165 -15.506254 -6.919420 108 113 107 100
11.718659 -12.690287 -5.466760 97 108 99 64
12.620690 -12.124827 -4.778247 96 104 95 87
-0.739454 -13.281236 -6.910063 98 99 98 99
-8.282282 -14.873513 -6.955810 134 140 133 130
10.918984 -11.592644 -5.694752 84 92 85 61
-12.877708 -11.649804 -7.233091 158 155 159 164
9.935123 -8.963788 -5.984532 96 98 100 70
-13.014671 -8.835685 -7.431909 158 156 159 163
-1.527718 -8.326995 -7.093955 125 126 125 127
-10.238686 -6.861593 -7.374152 167 166 168 171
-11.701565 -4.748410 -7.545521 102 103 103 103
-8.660297 -37.253339 -1.875814 157 157 158 160
21.028493 -38.625415 -3.504287 111 133 106 81
-2.884167 -32.550135 -2.318246 170 173 170 166
8.892874 -38.953564 -4.900428 153 155 153 151
-6.987295 -31.153109 -2.083427 129 130 129 129
-5.536335 -30.788862 -2.046464 140 141 140 139
2.598545 -41.291580 -4.902820 94 94 94 96
8.921878 -36.865648 -5.022566 142 142 143 143
16.397467 -36.888592 -5.063209 122 133 124 84
0.205516 -38.285631 -5.583547 120 125 119 112
-15.689129 -28.752944 -2.461008 134 137 133 132
-13.613893 -26.557913 -2.486389 124 125 124 124
-10.640176 -25.206663 -2.515102 133 137 133 131
-16.117276 -26.403644 -2.843818 128 133 127 127
18.255629 -21.881499 -0.481620 54 49 60 39
8.080805 -30.997527 -5.455825 115 111 117 121
6.958134 -30.008789 -5.573481 128 125 129 134
-1.828531 -32.040051 -7.025230 104 109 104 98
14.937001 -28.698006 -5.410574 106 110 113 66
15.161007 -23.990790 -4.466282 95 96 102 60
13.723667 -27.167656 -5.900778 134 139 135 124
-2.558068 -27.656656 -8.035306 99 103 98 97
5.832220 -23.732992 -5.932058 154 155 154 152
-15.458783 -19.562369 -6.816575 35 38 35 33
13.703035 -18.896642 -5.017299 92 92 99 62
11.319809 -20.000067 -6.538952 127 135 127 113
10.890771 -18.748118 -6.632084 129 136 129 116
-8.264259 -17.344694 -4.775976 128 126 130 131
13.025692 -16.842865 -5.202901 91 97 94 60
11.584063 -16.664181 -5.793688 79 79 86 45
10.217055 -13.105531 -6.150916 90 92 96 53
12.797133 -10.378937 -4.429026 125 133 124 115
-14.129436 -12.439513 -7.260885 140 142 140 141
9.418364 -12.519221 -6.625348 130 142 128 112
0.438969 -10.945182 -6.808741 137 137 137 138
-10.133048 -10.713775 -7.149212 131 131 131 131
-11.266858 -9.715238 -7.274511 171 168 173 176
-7.412909 -4.981526 -7.361587 141 141 142 144
17.091679 -45.512878 -4.415461 144 142 145 146
-7.689839 -32.683696 -2.103687 141 142 141 142
-10.893987 -31.992913 -2.296703 138 139 138 140
1.670459 -37.519236 -5.767027 138 135 139 143
-19.680657 -29.344305 -0.316675 59 82 52 40
-17.935887 -29.327984 -1.522210 48 46 48 56
-16.666626 -24.847134 -2.706518 129 132 128 127
4.383117 -31.117719 -4.878296 170 171 171 169
17.742538 -20.250020 -0.757262 88 89 92 67
-2.798342 -31.131754 -7.216378 132 138 132 124
16.440213 -26.311892 -4.234423 103 106 109 69
-8.049947 -21.533695 -2.838673 136 140 135 132
13.072067 -27.444206 -5.742827 110 118 113 81
16.150707 -20.968951 -3.641050 106 113 105 95
13.020446 -22.975404 -5.374104 107 112 114 64
7.302175 -22.554385 -5.843681 142 145 142 141
2.368877 -21.368594 -6.231090 96 95 97 98
2.100028 -20.317565 -6.280043 103 101 104 107
12.148385 -20.214846 -5.967826 92 104 93 59
-3.177341 -15.536597 -4.582449 67 121 42 58
14.505903 -13.781197 -3.543579 99 106 98 89
12.527084 -14.368669 -5.216090 66 65 71 45
-8.731759 -13.374268 -7.095231 147 150 146 145
-4.085668 -15.698072 -6.603745 124 125 125 122
-12.364632 -12.896741 -7.204269 169 169 170 172
4.207636 -11.226995 -6.783450 143 145 143 143
-13.419810 -10.959670 -7.268344 121 121 121 123
-6.618879 -5.407331 -7.398017 137 140 137 136
12.075813 -42.823491 -4.646265 157 159 157 156
3.601486 -40.851902 -4.980051 109 108 110 113
-8.571776 -32.675512 -2.075646 125 126 126 126
10.328533 -41.408455 -4.964289 161 160 162 162
7.666036 -40.131129 -4.803988 136 137 137 136
-13.839342 -28.758045 -2.082713 76 74 77 78
7.594912 -36.150943 -5.126355 118 119 118 119
14.709093 -39.428087 -4.827094 150 150 150 151
12.932449 -34.195224 -5.177612 148 148 148 150
-1.997854 -34.603266 -6.584062 125 131 124 114
6.135572 -31.677673 -5.479954 104 101 106 109
0.951894 -33.948880 -6.302407 136 134 137 142
-2.557620 -32.354165 -6.769577 135 140 135 128
13.410913 -28.547466 -5.608903 115 124 116 88
15.472116 -24.104297 -4.332051 93 93 99 63
-1.725794 -29.402990 -7.651338 96 99 96 96
1.521909 -22.301310 -5.273875 175 177 176 172
15.346966 -17.191436 -3.818169 107 111 108 98
-12.765788 -18.920296 -3.508269 142 142 143 142
-10.686370 -18.057482 -3.521951 142 141 143 142
0.102141 -18.034355 -5.344601 186 188 187 182
10.535661 -17.879690 -6.742404 137 146 142 89
-11.711578 -18.278598 -6.272697 53 52 59 29
0.501077 -10.139614 -6.882059 135 136 135 135
3.819536 -10.118245 -6.937578 149 153 149 146
-10.091399 -8.909593 -7.178560 136 138 136 137
-7.564541 -5.738975 -7.401715 140 141 140 141
17.469970 -35.495397 -4.279672 99 102 106 54
-15.756438 -31.305575 -2.468947 131 131 131 132
-11.692041 -29.495209 -1.795042 44 39 46 51
-14.462878 -26.430842 -2.531026 138 141 138 137
-4.690182 -33.133387 -2.205900 138 139 138 139
-9.315536 -23.338413 -2.492538 132 138 129 133
15.591725 -29.931836 -4.978398 120 130 124 78
10.541009 -27.453410 -5.570503 132 133 132 132
-11.514422 -18.373277 -3.511224 134 133 135 134
-3.717522 -29.354477 -7.834354 115 123 114 107
-1.301430 -14.535190 -3.318339 164 165 164 165
9.794650 -25.327952 -5.785600 139 141 139 139
-1.459075 -14.584775 -6.639625 107 108 107 108
7.182585 -14.030771 -6.678181 126 130 125 122
-15.972020 -27.366890 -2.368401 131 134 131 131
14.736893 -35.335941 -4.652929 126 132 130 97
12.788156 -39.130753 -4.942655 145 146 145 146
-7.946586 -17.101040 -6.498445 85 79 98 39
4.378972 -20.146738 -6.149823 134 136 134 135
-9.756040 -7.551809 -7.228332 138 139 138 139
-6.779494 -24.933005 -1.465614 117 120 117 115
